-0.19230000 -0.17020000 1179.43070000 1448
-0.19220000 -0.17000000 1179.43030000 1439
-0.19230000 -0.17000000 1179.43470000 1445
-0.19220000 -0.16990000 1179.43420000 1445
-0.19220000 -0.16980000 1179.43330000 1446
-0.19220000 -0.16970000 1179.43340000 1436
-0.19220000 -0.16950000 1179.42950000 1445
-0.19210000 -0.16950000 1179.43060000 1441
-0.19210000 -0.16940000 1179.43120000 1433
-0.19210000 -0.16920000 1179.42780000 1427
-0.19210000 -0.16920000 1179.42990000 1433
-0.19210000 -0.16910000 1179.43080000 1438
-0.19210000 -0.16890000 1179.42810000 1429
-0.19210000 -0.16890000 1179.43220000 1444
-0.19200000 -0.16880000 1179.43140000 1436
-0.19200000 -0.16870000 1179.43120000 1434
-0.19200000 -0.16860000 1179.42840000 1432
-0.19190000 -0.16840000 1179.42090000 1429
-0.19190000 -0.16830000 1179.42370000 1432
-0.19190000 -0.16820000 1179.42290000 1437
-0.19190000 -0.16820000 1179.42740000 1430
-0.19190000 -0.16800000 1179.42480000 1435
-0.19180000 -0.16790000 1179.42200000 1429
-0.19180000 -0.16780000 1179.42440000 1423
-0.19180000 -0.16770000 1179.42190000 1424
-0.19180000 -0.16760000 1179.42160000 1422
-0.19180000 -0.16750000 1179.42120000 1421
-0.19170000 -0.16740000 1179.41430000 1420
-0.19170000 -0.16730000 1179.41500000 1424
-0.19170000 -0.16720000 1179.41670000 1424
-0.19170000 -0.16710000 1179.41820000 1416
-0.19170000 -0.16700000 1179.41830000 1422
-0.19160000 -0.16680000 1179.41090000 1419
-0.19160000 -0.16680000 1179.41440000 1418
-0.19150000 -0.16660000 1179.41020000 1410
-0.19150000 -0.16650000 1179.40810000 1402
-0.19150000 -0.16640000 1179.40670000 1410
-0.19140000 -0.16630000 1179.40460000 1406
-0.19150000 -0.16620000 1179.40920000 1409
-0.19140000 -0.16610000 1179.40620000 1408
-0.19140000 -0.16600000 1179.40320000 1406
-0.19130000 -0.16590000 1179.40370000 1407
-0.19120000 -0.16570000 1179.39250000 1402
-0.19120000 -0.16560000 1179.39340000 1400
-0.19120000 -0.16550000 1179.39530000 1392
-0.19120000 -0.16540000 1179.38950000 1390
-0.19110000 -0.16530000 1179.38610000 1388
-0.19110000 -0.16520000 1179.38650000 1388
-0.19110000 -0.16510000 1179.39110000 1393
-0.19100000 -0.16500000 1179.38590000 1390
-0.19100000 -0.16490000 1179.38030000 1388
-0.19100000 -0.16480000 1179.38490000 1392
-0.19090000 -0.16460000 1179.37470000 1379
-0.19090000 -0.16450000 1179.37640000 1381
-0.19090000 -0.16440000 1179.37610000 1380
-0.19080000 -0.16430000 1179.37270000 1370
-0.19080000 -0.16420000 1179.37630000 1373
-0.19080000 -0.16410000 1179.37610000 1382
-0.19080000 -0.16400000 1179.37240000 1377
-0.19080000 -0.16400000 1179.37770000 1378
-0.19070000 -0.16380000 1179.37330000 1372
-0.19060000 -0.16370000 1179.36130000 1365
-0.19060000 -0.16360000 1179.36970000 1365
-0.18910000 -0.15770000 1179.36460000 1390
-0.18900000 -0.15760000 1179.36540000 1377
-0.18900000 -0.15750000 1179.36270000 1386
-0.18900000 -0.15740000 1179.36600000 1379
-0.18890000 -0.15730000 1179.36210000 1382
-0.18900000 -0.15730000 1179.37180000 1383
-0.18890000 -0.15710000 1179.36150000 1378
-0.18880000 -0.15680000 1179.36300000 1387
-0.18880000 -0.15680000 1179.37050000 1398
-0.18880000 -0.15670000 1179.37150000 1396
-0.18870000 -0.15660000 1179.36870000 1397
-0.18880000 -0.15650000 1179.37720000 1402
-0.18870000 -0.15640000 1179.36920000 1389
-0.18870000 -0.15630000 1179.37370000 1393
-0.18860000 -0.15620000 1179.37120000 1396
-0.18860000 -0.15610000 1179.36750000 1400
-0.18860000 -0.15600000 1179.37450000 1396
-0.18860000 -0.15590000 1179.37330000 1396
-0.18860000 -0.15590000 1179.38400000 1413
-0.18860000 -0.15580000 1179.38190000 1404
-0.18850000 -0.15560000 1179.37720000 1406
-0.18850000 -0.15560000 1179.37830000 1406
-0.18840000 -0.15550000 1179.37560000 1403
-0.18840000 -0.15540000 1179.37820000 1409
-0.18840000 -0.15530000 1179.37840000 1410
-0.18840000 -0.15520000 1179.38060000 1407
-0.18840000 -0.15510000 1179.38520000 1409
-0.18830000 -0.15500000 1179.37990000 1404
-0.18830000 -0.15490000 1179.38000000 1408
-0.18830000 -0.15480000 1179.38390000 1411
-0.18820000 -0.15470000 1179.38030000 1419
-0.18810000 -0.15460000 1179.37890000 1410
-0.18810000 -0.15450000 1179.38280000 1407
-0.18810000 -0.15440000 1179.37920000 1408
-0.18810000 -0.15430000 1179.38280000 1414
-0.18800000 -0.15420000 1179.38300000 1412
-0.18800000 -0.15410000 1179.38260000 1405
-0.18800000 -0.15410000 1179.38820000 1418
-0.18790000 -0.15390000 1179.37870000 1407
-0.18790000 -0.15390000 1179.38630000 1404
-0.18790000 -0.15380000 1179.38480000 1414
-0.18790000 -0.15370000 1179.38590000 1408
-0.18780000 -0.15360000 1179.38310000 1402
-0.18770000 -0.15350000 1179.38060000 1403
-0.18780000 -0.15340000 1179.38550000 1398
-0.18770000 -0.15330000 1179.38430000 1409
-0.18770000 -0.15320000 1179.38110000 1396
-0.18760000 -0.15310000 1179.38440000 1403
-0.18760000 -0.15300000 1179.38680000 1404
-0.18760000 -0.15290000 1179.38600000 1409
-0.18750000 -0.15280000 1179.38170000 1410
-0.18750000 -0.15280000 1179.38640000 1399
-0.18750000 -0.15260000 1179.38370000 1391
-0.18740000 -0.15250000 1179.38050000 1401
-0.18740000 -0.15240000 1179.38140000 1391
-0.18730000 -0.15230000 1179.37900000 1390
-0.18730000 -0.15230000 1179.38150000 1382
-0.18720000 -0.15210000 1179.37660000 1394
-0.18730000 -0.15210000 1179.38390000 1390
-0.18720000 -0.15200000 1179.38260000 1387
-0.18710000 -0.15190000 1179.37960000 1395
-0.18710000 -0.15180000 1179.37810000 1380
-0.18700000 -0.15160000 1179.36990000 1386
-0.18700000 -0.15160000 1179.37320000 1379
-0.18700000 -0.15150000 1179.37480000 1370
-0.18700000 -0.15140000 1179.37820000 1386
-0.18690000 -0.15130000 1179.38030000 1385
-0.18690000 -0.15120000 1179.37900000 1383
-0.18680000 -0.15110000 1179.37490000 1371
-0.18680000 -0.15100000 1179.37650000 1373
-0.18670000 -0.15090000 1179.37210000 1378
-0.18660000 -0.15080000 1179.36580000 1360
-0.18670000 -0.15070000 1179.37540000 1384
-0.18660000 -0.15060000 1179.36740000 1353
-0.18650000 -0.15050000 1179.36480000 1384
-0.18650000 -0.15040000 1179.37120000 1369
-0.18650000 -0.15030000 1179.37150000 1367
-0.18650000 -0.15030000 1179.37340000 1382
-0.18650000 -0.15020000 1179.37810000 1359
-0.18630000 -0.15000000 1179.36160000 1375
-0.18630000 -0.14990000 1179.36420000 1376
-0.18630000 -0.14990000 1179.36940000 1378
-0.18630000 -0.14980000 1179.37110000 1383
-0.18620000 -0.14970000 1179.36840000 1377
-0.18610000 -0.14960000 1179.36610000 1372
-0.18610000 -0.14950000 1179.36740000 1376
-0.18600000 -0.14940000 1179.36300000 1382
-0.18600000 -0.14930000 1179.36760000 1371
-0.18600000 -0.14920000 1179.36770000 1386
-0.18600000 -0.14910000 1179.36930000 1391
-0.18590000 -0.14900000 1179.36860000 1379
-0.18590000 -0.14890000 1179.36980000 1399
-0.18580000 -0.14880000 1179.36560000 1380
-0.18580000 -0.14880000 1179.37180000 1384
-0.18570000 -0.14860000 1179.36680000 1385
-0.18580000 -0.14860000 1179.37250000 1383
-0.18570000 -0.14850000 1179.36900000 1388
-0.18560000 -0.14840000 1179.36490000 1389
-0.18560000 -0.14830000 1179.37110000 1397
-0.18560000 -0.14820000 1179.37120000 1409
-0.18550000 -0.14810000 1179.36370000 1392
-0.18550000 -0.14800000 1179.36980000 1392
-0.18550000 -0.14800000 1179.37280000 1404
-0.18540000 -0.14790000 1179.37230000 1387
-0.18540000 -0.14780000 1179.37030000 1396
-0.18530000 -0.14770000 1179.36940000 1398
-0.18530000 -0.14760000 1179.36960000 1401
-0.18520000 -0.14750000 1179.37070000 1402
-0.18530000 -0.14740000 1179.37870000 1406
-0.18520000 -0.14730000 1179.37560000 1404
-0.18510000 -0.14720000 1179.37210000 1402
-0.18510000 -0.14720000 1179.37750000 1406
-0.18510000 -0.14710000 1179.37490000 1408
-0.18500000 -0.14700000 1179.37420000 1403
-0.18500000 -0.14690000 1179.37060000 1415
-0.18490000 -0.14680000 1179.37510000 1410
-0.18490000 -0.14670000 1179.38060000 1412
-0.18490000 -0.14670000 1179.38580000 1430
-0.18480000 -0.14650000 1179.37790000 1421
-0.18480000 -0.14640000 1179.37650000 1425
-0.18470000 -0.14630000 1179.37450000 1410
-0.18470000 -0.14620000 1179.37440000 1420
-0.18470000 -0.14620000 1179.38010000 1429
-0.18460000 -0.14610000 1179.37960000 1422
-0.18460000 -0.14600000 1179.38600000 1431
-0.18460000 -0.14590000 1179.38390000 1421
-0.18460000 -0.14590000 1179.38580000 1439
-0.18450000 -0.14580000 1179.38920000 1440
-0.13660000 -0.12120000 1179.40980000 1424
-0.13650000 -0.12120000 1179.40810000 1436
-0.13560000 -0.12080000 1179.39280000 1420
-0.13560000 -0.12080000 1179.39910000 1426
-0.13560000 -0.12080000 1179.40410000 1423
-0.13540000 -0.12070000 1179.39310000 1426
-0.13540000 -0.12080000 1179.40830000 1437
-0.13530000 -0.12070000 1179.39710000 1417
-0.08750000 -0.10760000 1177.32460000 1433
-0.08740000 -0.10760000 1177.32910000 1426
-0.08660000 -0.10780000 1177.32230000 1442
-0.08650000 -0.10780000 1177.31670000 1432
-0.08650000 -0.10780000 1177.32180000 1430
-0.08640000 -0.10780000 1177.31590000 1433
-0.08630000 -0.10780000 1177.31710000 1436
-0.08620000 -0.10790000 1177.31800000 1425
-0.08610000 -0.10790000 1177.31790000 1433
-0.08590000 -0.10790000 1177.31350000 1439
-0.08460000 -0.10820000 1177.30570000 1439
-0.08430000 -0.10830000 1177.30160000 1440
-0.08420000 -0.10840000 1177.30730000 1435
-0.08380000 -0.10850000 1177.30030000 1432
-0.08370000 -0.10850000 1177.29790000 1422
-0.08360000 -0.10850000 1177.30210000 1422
-0.08360000 -0.10850000 1177.30050000 1432
-0.08350000 -0.10860000 1177.30380000 1436
-0.08340000 -0.10860000 1177.30040000 1432
-0.08320000 -0.10860000 1177.29620000 1424
-0.08310000 -0.10860000 1177.29840000 1428
-0.08300000 -0.10860000 1177.29270000 1418
-0.08290000 -0.10870000 1177.29420000 1425
-0.08280000 -0.10870000 1177.29500000 1427
-0.08280000 -0.10880000 1177.29900000 1416
-0.08270000 -0.10880000 1177.29580000 1422
-0.08260000 -0.10880000 1177.29630000 1417
-0.08260000 -0.10880000 1177.29620000 1413
-0.06670000 -0.12520000 1178.37110000 1344
-0.06670000 -0.12540000 1178.38650000 1333
-0.06650000 -0.12540000 1178.38190000 1337
-0.06650000 -0.12550000 1178.38010000 1351
-0.06640000 -0.12560000 1178.38720000 1347
-0.06630000 -0.12570000 1178.38330000 1349
-0.06620000 -0.12560000 1178.36810000 1334
-0.06610000 -0.12570000 1178.36650000 1340
-0.06610000 -0.12580000 1178.37530000 1330
-0.06610000 -0.12590000 1178.39340000 1338
-0.06600000 -0.12580000 1178.36790000 1352
-0.06590000 -0.12590000 1178.37720000 1346
-0.06590000 -0.12600000 1178.38190000 1349
-0.06590000 -0.12610000 1178.40000000 1340
-0.06580000 -0.12630000 1178.40630000 1349
-0.06570000 -0.12630000 1178.39650000 1314
-0.06560000 -0.12630000 1178.38760000 1333
-0.06560000 -0.12640000 1178.39620000 1339
-0.06540000 -0.12630000 1178.37510000 1320
-0.06540000 -0.12640000 1178.38140000 1341
-0.06540000 -0.12650000 1178.38530000 1333
-0.06530000 -0.12640000 1178.37110000 1332
-0.06520000 -0.12650000 1178.37120000 1331
-0.06520000 -0.12670000 1178.40220000 1307
-0.06510000 -0.12660000 1178.37120000 1326
-0.06510000 -0.12680000 1178.39390000 1308
-0.06500000 -0.12680000 1178.39380000 1325
-0.06490000 -0.12680000 1178.37700000 1332
-0.06490000 -0.12700000 1178.40150000 1314
-0.06480000 -0.12700000 1178.39400000 1309
-0.06470000 -0.12700000 1178.38450000 1322
-0.06470000 -0.12710000 1178.39700000 1318
-0.06460000 -0.12710000 1178.37960000 1289
-0.06460000 -0.12730000 1178.39890000 1305
-0.06230000 -0.12910000 1178.36120000 1289
-0.06230000 -0.12920000 1178.37510000 1316
-0.06230000 -0.12930000 1178.38950000 1334
-0.06210000 -0.12920000 1178.35110000 1319
-0.06200000 -0.12930000 1178.35050000 1332
-0.06210000 -0.12950000 1178.37800000 1311
-0.06200000 -0.12950000 1178.36750000 1315
-0.05490000 -0.13900000 1178.47480000 1344
-0.05330000 -0.14090000 1178.42370000 1303
-0.05330000 -0.14090000 1178.40760000 1287
-0.05320000 -0.14100000 1178.41980000 1289
-0.05500000 -0.14970000 1179.57860000 1312
-0.05430000 -0.15070000 1179.55370000 1319
-0.05420000 -0.15090000 1179.54410000 1309
-0.05410000 -0.15100000 1179.54250000 1299
-0.05410000 -0.15100000 1179.52780000 1306
-0.05400000 -0.15120000 1179.53760000 1312
-0.05390000 -0.15120000 1179.52920000 1296
-0.05390000 -0.15140000 1179.54540000 1301
-0.05380000 -0.15150000 1179.53870000 1305
-0.05380000 -0.15150000 1179.52640000 1299
-0.05370000 -0.15170000 1179.52940000 1294
-0.05360000 -0.15180000 1179.53030000 1287
-0.05360000 -0.15180000 1179.51960000 1300
-0.05360000 -0.15190000 1179.53240000 1297
-0.05350000 -0.15190000 1179.52210000 1290
-0.05340000 -0.15210000 1179.51610000 1312
-0.05330000 -0.15220000 1179.51360000 1304
-0.05330000 -0.15220000 1179.51500000 1311
-0.05330000 -0.15230000 1179.51330000 1292
-0.05320000 -0.15240000 1179.52090000 1295
-0.05320000 -0.15250000 1179.52000000 1302
-0.05320000 -0.15260000 1179.52200000 1310
-0.05310000 -0.15260000 1179.50890000 1315
-0.05300000 -0.15270000 1179.51020000 1319
-0.05300000 -0.15280000 1179.51120000 1315
-0.05300000 -0.15290000 1179.51050000 1296
-0.05290000 -0.15290000 1179.51210000 1296
-0.05290000 -0.15300000 1179.50780000 1311
-0.05280000 -0.15310000 1179.50590000 1299
-0.05280000 -0.15310000 1179.50910000 1316
-0.05280000 -0.15320000 1179.50630000 1308
-0.05270000 -0.15330000 1179.50810000 1308
-0.05270000 -0.15330000 1179.50680000 1312
-0.05270000 -0.15340000 1179.50560000 1316
-0.05260000 -0.15350000 1179.50740000 1320
-0.05260000 -0.15360000 1179.50260000 1317
-0.05250000 -0.15370000 1179.50700000 1326
-0.05250000 -0.15380000 1179.50540000 1327
-0.05240000 -0.15390000 1179.50450000 1329
-0.05240000 -0.15400000 1179.50240000 1324
-0.05230000 -0.15400000 1179.50230000 1320
-0.05230000 -0.15410000 1179.50360000 1331
-0.05230000 -0.15420000 1179.50490000 1308
-0.05220000 -0.15430000 1179.50480000 1329
-0.05220000 -0.15430000 1179.50340000 1298
-0.05220000 -0.15440000 1179.49850000 1318
-0.05210000 -0.15450000 1179.50610000 1312
-0.05210000 -0.15450000 1179.50270000 1332
-0.05210000 -0.15460000 1179.50360000 1308
-0.05200000 -0.15470000 1179.50140000 1335
-0.05200000 -0.15470000 1179.49950000 1314
-0.05200000 -0.15480000 1179.50220000 1306
-0.05190000 -0.15490000 1179.50250000 1321
-0.05190000 -0.15500000 1179.50040000 1338
-0.05190000 -0.15500000 1179.49860000 1339
-0.05180000 -0.15510000 1179.49690000 1321
-0.05180000 -0.15520000 1179.50450000 1327
-0.05180000 -0.15530000 1179.50170000 1327
-0.05170000 -0.15530000 1179.50070000 1312
-0.05170000 -0.15540000 1179.50250000 1310
-0.05170000 -0.15550000 1179.50040000 1324
-0.05160000 -0.15560000 1179.49870000 1330
-0.05160000 -0.15570000 1179.50690000 1323
-0.05160000 -0.15570000 1179.50280000 1325
-0.05150000 -0.15580000 1179.49740000 1329
-0.05150000 -0.15590000 1179.49990000 1330
-0.05140000 -0.15600000 1179.50310000 1330
-0.05140000 -0.15610000 1179.49980000 1339
-0.05140000 -0.15620000 1179.50200000 1329
-0.05130000 -0.15620000 1179.49850000 1339
-0.05130000 -0.15630000 1179.50070000 1321
-0.05130000 -0.15640000 1179.49900000 1331
-0.05120000 -0.15650000 1179.50070000 1339
-0.05120000 -0.15660000 1179.50360000 1341
-0.05120000 -0.15660000 1179.50420000 1349
-0.05110000 -0.15670000 1179.49980000 1326
-0.05110000 -0.15680000 1179.50530000 1335
-0.05110000 -0.15690000 1179.50120000 1333
-0.05110000 -0.15690000 1179.50290000 1349
-0.05100000 -0.15700000 1179.49950000 1324
-0.05100000 -0.15710000 1179.50340000 1337
-0.05100000 -0.15720000 1179.50330000 1336
-0.05090000 -0.15720000 1179.49930000 1346
-0.05090000 -0.15730000 1179.49870000 1347
-0.05090000 -0.15740000 1179.49950000 1354
-0.05080000 -0.15750000 1179.50090000 1342
-0.05080000 -0.15750000 1179.49560000 1335
-0.05080000 -0.15760000 1179.49950000 1337
-0.05070000 -0.15770000 1179.50080000 1325
-0.05070000 -0.15770000 1179.49680000 1335
-0.05070000 -0.15780000 1179.50360000 1342
-0.05060000 -0.15790000 1179.50120000 1325
-0.05060000 -0.15800000 1179.50130000 1349
-0.05060000 -0.15810000 1179.50120000 1350
-0.05060000 -0.15810000 1179.50010000 1344
-0.05050000 -0.15820000 1179.50190000 1342
-0.05050000 -0.15830000 1179.50150000 1353
-0.05050000 -0.15840000 1179.50390000 1355
-0.05040000 -0.15840000 1179.49980000 1334
-0.05040000 -0.15850000 1179.50340000 1352
-0.05040000 -0.15860000 1179.49960000 1351
-0.05030000 -0.15860000 1179.49960000 1347
-0.05030000 -0.15870000 1179.49980000 1352
-0.05030000 -0.15880000 1179.49790000 1351
-0.05030000 -0.15890000 1179.50270000 1348
-0.05020000 -0.15890000 1179.50010000 1363
-0.05020000 -0.15900000 1179.49710000 1346
-0.05020000 -0.15910000 1179.49840000 1344
-0.05010000 -0.15920000 1179.49930000 1354
-0.05010000 -0.15920000 1179.49680000 1354
-0.05010000 -0.15930000 1179.49880000 1358
-0.05010000 -0.15940000 1179.49960000 1345
-0.05000000 -0.15950000 1179.50140000 1339
-0.05000000 -0.15960000 1179.50160000 1360
-0.05000000 -0.15960000 1179.50020000 1354
-0.05000000 -0.15970000 1179.49980000 1356
-0.04990000 -0.15980000 1179.50090000 1337
-0.04990000 -0.15990000 1179.50330000 1357
-0.04990000 -0.15990000 1179.50310000 1364
-0.04980000 -0.16000000 1179.50150000 1348
-0.04980000 -0.16010000 1179.49950000 1359
-0.04980000 -0.16020000 1179.49960000 1365
-0.04980000 -0.16020000 1179.49790000 1365
-0.04970000 -0.16030000 1179.49840000 1363
-0.04970000 -0.16040000 1179.50060000 1359
-0.04970000 -0.16050000 1179.50060000 1363
-0.04970000 -0.16050000 1179.49920000 1367
-0.04960000 -0.16060000 1179.50120000 1378
-0.04960000 -0.16070000 1179.50160000 1373
-0.04960000 -0.16080000 1179.49840000 1370
-0.04960000 -0.16080000 1179.50050000 1374
-0.04950000 -0.16090000 1179.50140000 1363
-0.04950000 -0.16100000 1179.50280000 1360
-0.04950000 -0.16110000 1179.50070000 1362
-0.04940000 -0.16110000 1179.49900000 1367
-0.04940000 -0.16120000 1179.50250000 1373
-0.04940000 -0.16130000 1179.50030000 1371
-0.04940000 -0.16140000 1179.49890000 1372
-0.04930000 -0.16150000 1179.50160000 1368
-0.04930000 -0.16150000 1179.49780000 1377
-0.04930000 -0.16160000 1179.49840000 1384
-0.04930000 -0.16170000 1179.50060000 1374
-0.04920000 -0.16180000 1179.50100000 1380
-0.04920000 -0.16190000 1179.50240000 1375
-0.04920000 -0.16190000 1179.50110000 1386
-0.04910000 -0.16210000 1179.50240000 1384
-0.04910000 -0.16230000 1179.50160000 1378
-0.04900000 -0.16240000 1179.50280000 1378
-0.04900000 -0.16250000 1179.50080000 1354
-0.04900000 -0.16250000 1179.50160000 1374
-0.04900000 -0.16260000 1179.50080000 1388
-0.04900000 -0.16270000 1179.50330000 1387
-0.04890000 -0.16280000 1179.50300000 1389
-0.04890000 -0.16280000 1179.50060000 1383
-0.04890000 -0.16290000 1179.50490000 1387
-0.04890000 -0.16300000 1179.50500000 1382
-0.04880000 -0.16310000 1179.50230000 1379
-0.04880000 -0.16320000 1179.50320000 1391
-0.04880000 -0.16320000 1179.50140000 1385
-0.04880000 -0.16330000 1179.50420000 1373
-0.04870000 -0.16340000 1179.50050000 1376
-0.04860000 -0.16370000 1179.50140000 1377
-0.04860000 -0.16380000 1179.49970000 1390
-0.04860000 -0.16390000 1179.50250000 1373
-0.04860000 -0.16400000 1179.50530000 1391
-0.04850000 -0.16400000 1179.50050000 1379
-0.04850000 -0.16410000 1179.50140000 1390
-0.04850000 -0.16420000 1179.50200000 1401
-0.04840000 -0.16460000 1179.50220000 1364
-0.04830000 -0.16470000 1179.50000000 1386
-0.04830000 -0.16480000 1179.50210000 1388
-0.04830000 -0.16480000 1179.49970000 1390
-0.04830000 -0.16500000 1179.50260000 1385
-0.04830000 -0.16500000 1179.50440000 1389
-0.04820000 -0.16530000 1179.50320000 1395
-0.04820000 -0.16540000 1179.50280000 1386
-0.04810000 -0.16550000 1179.50440000 1395
-0.04810000 -0.16560000 1179.50320000 1393
-0.04810000 -0.16570000 1179.50630000 1389
-0.04810000 -0.16570000 1179.50360000 1391
-0.04810000 -0.16580000 1179.50360000 1396
-0.04800000 -0.16590000 1179.50470000 1399
-0.04800000 -0.16600000 1179.50520000 1389
-0.04800000 -0.16610000 1179.50580000 1388
-0.04800000 -0.16610000 1179.50410000 1397
-0.04650000 -0.17350000 1179.49960000 1424
-0.04650000 -0.17360000 1179.50110000 1420
-0.04650000 -0.17370000 1179.50110000 1424
-0.04650000 -0.17380000 1179.50530000 1414
-0.04650000 -0.17390000 1179.50700000 1405
-0.04650000 -0.17390000 1179.50350000 1416
-0.04650000 -0.17400000 1179.50510000 1418
-0.04650000 -0.17400000 1179.50060000 1423
-0.04650000 -0.17410000 1179.50160000 1406
-0.04650000 -0.17430000 1179.50830000 1420
-0.04640000 -0.17430000 1179.50180000 1427
-0.04640000 -0.17440000 1179.50830000 1400
-0.04640000 -0.17450000 1179.50380000 1402
-0.04640000 -0.17450000 1179.50120000 1424
-0.04640000 -0.17460000 1179.50300000 1420
-0.04640000 -0.17470000 1179.50530000 1418
-0.04640000 -0.17480000 1179.50570000 1422
-0.04640000 -0.17490000 1179.50300000 1396
-0.04640000 -0.17490000 1179.50340000 1417
-0.04640000 -0.17510000 1179.50780000 1418
-0.04640000 -0.17510000 1179.50700000 1418
-0.04640000 -0.17520000 1179.50780000 1417
-0.04630000 -0.17530000 1179.50480000 1415
-0.04630000 -0.17540000 1179.50530000 1413
-0.04630000 -0.17540000 1179.50300000 1416
-0.04630000 -0.17550000 1179.50160000 1414
-0.04630000 -0.17570000 1179.50880000 1410
-0.04630000 -0.17580000 1179.50550000 1419
-0.04600000 -0.17980000 1179.50240000 1415
-0.04600000 -0.17990000 1179.49810000 1415
-0.04600000 -0.18000000 1179.49890000 1420
-0.04600000 -0.18010000 1179.50040000 1406
-0.04600000 -0.18020000 1179.50300000 1413
-0.04600000 -0.18030000 1179.50430000 1412
-0.04600000 -0.18040000 1179.50600000 1416
-0.04600000 -0.18040000 1179.49630000 1408
-0.04600000 -0.18050000 1179.49940000 1413
-0.04600000 -0.18050000 1179.49910000 1417
-0.04600000 -0.18060000 1179.50160000 1420
-0.04600000 -0.18070000 1179.50000000 1409
-0.04600000 -0.18080000 1179.49910000 1413
-0.04600000 -0.18090000 1179.49900000 1419
-0.04600000 -0.18090000 1179.49630000 1410
-0.04600000 -0.18100000 1179.50180000 1407
-0.04600000 -0.18110000 1179.49940000 1418
-0.04600000 -0.18120000 1179.49860000 1418
-0.04600000 -0.18130000 1179.49820000 1413
-0.04590000 -0.18130000 1179.49090000 1419
-0.04600000 -0.18140000 1179.49830000 1416
-0.04590000 -0.18150000 1179.49750000 1415
-0.04590000 -0.18160000 1179.49690000 1404
-0.04600000 -0.18170000 1179.49990000 1420
-0.04590000 -0.18170000 1179.49530000 1420
-0.04590000 -0.18180000 1179.49660000 1413
-0.04590000 -0.18190000 1179.49730000 1414
-0.04590000 -0.18210000 1179.49710000 1410
-0.04590000 -0.18220000 1179.49710000 1416
-0.04590000 -0.18220000 1179.49610000 1415
-0.04590000 -0.18230000 1179.49850000 1416
-0.04590000 -0.18240000 1179.49770000 1414
-0.04590000 -0.18250000 1179.49690000 1416
-0.04590000 -0.18260000 1179.49540000 1409
-0.04590000 -0.18260000 1179.49400000 1409
-0.04590000 -0.18270000 1179.49730000 1418
-0.04590000 -0.18280000 1179.48980000 1422
-0.04600000 -0.18490000 1179.49040000 1422
-0.04600000 -0.18500000 1179.49160000 1424
-0.04600000 -0.18510000 1179.49250000 1424
-0.04600000 -0.18520000 1179.49240000 1424
-0.04600000 -0.18530000 1179.49330000 1423
-0.04600000 -0.18540000 1179.49250000 1424
-0.04600000 -0.18540000 1179.49090000 1421
-0.04600000 -0.18550000 1179.49090000 1428
-0.04600000 -0.18560000 1179.49440000 1427
-0.04600000 -0.18570000 1179.49620000 1426
-0.04600000 -0.18570000 1179.48970000 1431
-0.04600000 -0.18580000 1179.49010000 1431
-0.04600000 -0.18590000 1179.49140000 1433
-0.04600000 -0.18600000 1179.49160000 1425
-0.04600000 -0.18610000 1179.49240000 1430
-0.04610000 -0.18620000 1179.49630000 1415
-0.04610000 -0.18620000 1179.49030000 1434
-0.04610000 -0.18630000 1179.48980000 1428
-0.04610000 -0.18640000 1179.49120000 1433
-0.04610000 -0.18650000 1179.49000000 1434
-0.04610000 -0.18660000 1179.49280000 1433
-0.04610000 -0.18660000 1179.49180000 1436
-0.04610000 -0.18670000 1179.49270000 1429
-0.04610000 -0.18680000 1179.49060000 1434
-0.04610000 -0.18690000 1179.49090000 1436
-0.04610000 -0.18700000 1179.49110000 1438
-0.04610000 -0.18700000 1179.48950000 1432
-0.04610000 -0.18720000 1179.49540000 1436
-0.04610000 -0.18720000 1179.48940000 1440
-0.04610000 -0.18730000 1179.49160000 1438
-0.04610000 -0.18740000 1179.49160000 1437
-0.04610000 -0.18740000 1179.48910000 1434
-0.04610000 -0.18750000 1179.49250000 1442
-0.04610000 -0.18760000 1179.48890000 1439
-0.04620000 -0.18770000 1179.49080000 1434
-0.04620000 -0.18780000 1179.49020000 1444
-0.04620000 -0.18780000 1179.49030000 1440
-0.04620000 -0.18790000 1179.49200000 1441
-0.04620000 -0.18800000 1179.48960000 1446
-0.04620000 -0.18810000 1179.49040000 1442
-0.04620000 -0.18820000 1179.49120000 1435
-0.04620000 -0.18820000 1179.48940000 1447
-0.04620000 -0.18830000 1179.48830000 1442
-0.04620000 -0.18840000 1179.48970000 1440
-0.04620000 -0.18850000 1179.48960000 1439
-0.04620000 -0.18860000 1179.48890000 1446
-0.04620000 -0.18860000 1179.48690000 1446
-0.04630000 -0.18880000 1179.49100000 1446
-0.04630000 -0.18890000 1179.49060000 1438
-0.04630000 -0.18900000 1179.49170000 1443
-0.04630000 -0.18900000 1179.48770000 1438
-0.04870000 -0.20120000 1179.47690000 1491
-0.04920000 -0.20270000 1179.48510000 1492
-0.04950000 -0.20360000 1179.48630000 1491
-0.04960000 -0.20380000 1179.48530000 1494
-0.04960000 -0.20390000 1179.48820000 1492
-0.04980000 -0.20440000 1179.48760000 1490
-0.04990000 -0.20480000 1179.49470000 1498
-0.05000000 -0.20490000 1179.49720000 1497
-0.05000000 -0.20500000 1179.49310000 1495
-0.05000000 -0.20510000 1179.49370000 1490
-0.05020000 -0.20540000 1179.49820000 1498
-0.05020000 -0.20550000 1179.49520000 1500
-0.05020000 -0.20560000 1179.50160000 1499
-0.05030000 -0.20570000 1179.49560000 1493
-0.05030000 -0.20580000 1179.49840000 1493
-0.05030000 -0.20580000 1179.49520000 1500
-0.05040000 -0.20590000 1179.49940000 1496
-0.05040000 -0.20600000 1179.49680000 1496
-0.05040000 -0.20610000 1179.49580000 1493
-0.05040000 -0.20620000 1179.50180000 1499
-0.05050000 -0.20620000 1179.49820000 1494
-0.05050000 -0.20640000 1179.50290000 1490
-0.05050000 -0.20640000 1179.50340000 1492
-0.05060000 -0.20650000 1179.50070000 1500
-0.05060000 -0.20660000 1179.50180000 1493
-0.05070000 -0.20680000 1179.50370000 1496
-0.05070000 -0.20690000 1179.50360000 1499
-0.05080000 -0.20700000 1179.50620000 1497
-0.05080000 -0.20710000 1179.50660000 1489
-0.05080000 -0.20720000 1179.50850000 1497
-0.05080000 -0.20720000 1179.50640000 1499
-0.05090000 -0.20730000 1179.50310000 1500
-0.05090000 -0.20740000 1179.49820000 1489
-0.05100000 -0.20750000 1179.50420000 1493
-0.05100000 -0.20760000 1179.50790000 1490
-0.05100000 -0.20770000 1179.50720000 1488
-0.05110000 -0.20770000 1179.50750000 1492
-0.05110000 -0.20780000 1179.50360000 1491
-0.05110000 -0.20780000 1179.50260000 1496
-0.05110000 -0.20790000 1179.50280000 1490
-0.05120000 -0.20810000 1179.50340000 1495
-0.05120000 -0.20820000 1179.50500000 1499
-0.05130000 -0.20820000 1179.50440000 1485
-0.05130000 -0.20830000 1179.50550000 1487
-0.05130000 -0.20840000 1179.49970000 1489
-0.05140000 -0.20850000 1179.50310000 1492
-0.05140000 -0.20850000 1179.49980000 1493
-0.05140000 -0.20860000 1179.50370000 1489
-0.05150000 -0.20870000 1179.50030000 1492
-0.05150000 -0.20870000 1179.50120000 1491
-0.05150000 -0.20880000 1179.50440000 1489
-0.05160000 -0.20900000 1179.50980000 1487
-0.05160000 -0.20900000 1179.50430000 1488
-0.05160000 -0.20910000 1179.50710000 1488
-0.05170000 -0.20920000 1179.50680000 1488
-0.05170000 -0.20920000 1179.50600000 1484
-0.05170000 -0.20930000 1179.50470000 1489
-0.05180000 -0.20940000 1179.50440000 1490
-0.05180000 -0.20950000 1179.50820000 1494
-0.05180000 -0.20950000 1179.50580000 1479
-0.05190000 -0.20960000 1179.50850000 1489
-0.05190000 -0.20960000 1179.50190000 1480
-0.05190000 -0.20970000 1179.50240000 1484
-0.05200000 -0.20980000 1179.50350000 1480
-0.05200000 -0.20990000 1179.50320000 1479
-0.05210000 -0.21000000 1179.50080000 1485
-0.05210000 -0.21010000 1179.50170000 1475
-0.05210000 -0.21010000 1179.49800000 1472
-0.05220000 -0.21020000 1179.49990000 1471
-0.05220000 -0.21030000 1179.49800000 1477
-0.05220000 -0.21040000 1179.50160000 1481
-0.05230000 -0.21050000 1179.50070000 1476
-0.05240000 -0.21060000 1179.50220000 1478
-0.05240000 -0.21070000 1179.50280000 1476
-0.05240000 -0.21070000 1179.49900000 1473
-0.05240000 -0.21080000 1179.49790000 1472
-0.05250000 -0.21090000 1179.49740000 1471
-0.05250000 -0.21090000 1179.49920000 1479
-0.05260000 -0.21110000 1179.49940000 1473
-0.05260000 -0.21120000 1179.50160000 1467
-0.05270000 -0.21120000 1179.49970000 1473
-0.05270000 -0.21130000 1179.49990000 1479
-0.05270000 -0.21140000 1179.49890000 1473
-0.05280000 -0.21150000 1179.50060000 1472
-0.05280000 -0.21150000 1179.49810000 1475
-0.05280000 -0.21150000 1179.49340000 1476
-0.05290000 -0.21170000 1179.49810000 1472
-0.05290000 -0.21180000 1179.50080000 1462
-0.05290000 -0.21180000 1179.49930000 1475
-0.05300000 -0.21190000 1179.49850000 1473
-0.05300000 -0.21190000 1179.49700000 1466
-0.05310000 -0.21210000 1179.49740000 1478
-0.05310000 -0.21220000 1179.49820000 1473
-0.05320000 -0.21230000 1179.50050000 1476
-0.05320000 -0.21240000 1179.49720000 1467
-0.05330000 -0.21250000 1179.50230000 1470
-0.05330000 -0.21260000 1179.50450000 1472
-0.05340000 -0.21260000 1179.50120000 1473
-0.05340000 -0.21270000 1179.50160000 1467
-0.05340000 -0.21280000 1179.50120000 1471
-0.05350000 -0.21290000 1179.50320000 1477
-0.05350000 -0.21300000 1179.50280000 1472
-0.05360000 -0.21310000 1179.50530000 1467
-0.05360000 -0.21310000 1179.50230000 1471
-0.05370000 -0.21320000 1179.50150000 1472
-0.05380000 -0.21340000 1179.50400000 1472
-0.05380000 -0.21350000 1179.50310000 1481
-0.05390000 -0.21360000 1179.50120000 1476
-0.05390000 -0.21360000 1179.50360000 1465
-0.05390000 -0.21370000 1179.50130000 1470
-0.05400000 -0.21380000 1179.50080000 1473
-0.05400000 -0.21380000 1179.50040000 1471
-0.05400000 -0.21390000 1179.50120000 1471
-0.05410000 -0.21400000 1179.50060000 1471
-0.05420000 -0.21410000 1179.50310000 1477
-0.05420000 -0.21420000 1179.50330000 1474
-0.05420000 -0.21430000 1179.50370000 1469
-0.05430000 -0.21430000 1179.50280000 1477
-0.05430000 -0.21440000 1179.50500000 1474
-0.05450000 -0.21470000 1179.50480000 1482
-0.05460000 -0.21490000 1179.50470000 1473
-0.05460000 -0.21490000 1179.50580000 1468
-0.05460000 -0.21500000 1179.50710000 1476
-0.05470000 -0.21510000 1179.50420000 1471
-0.05470000 -0.21520000 1179.50820000 1474
-0.05480000 -0.21530000 1179.50560000 1480
-0.05480000 -0.21530000 1179.50440000 1480
-0.05490000 -0.21540000 1179.50320000 1467
-0.05490000 -0.21550000 1179.50790000 1467
-0.05500000 -0.21550000 1179.50360000 1479
-0.05500000 -0.21570000 1179.50960000 1470
-0.05500000 -0.21570000 1179.50440000 1480
-0.05510000 -0.21570000 1179.50240000 1477
-0.05510000 -0.21580000 1179.50080000 1475
-0.05520000 -0.21590000 1179.50380000 1477
-0.05520000 -0.21590000 1179.50350000 1474
-0.05520000 -0.21600000 1179.49820000 1481
-0.05530000 -0.21600000 1179.49710000 1477
-0.05540000 -0.21620000 1179.50140000 1480
-0.05540000 -0.21630000 1179.50310000 1479
-0.05540000 -0.21630000 1179.50110000 1472
-0.05550000 -0.21640000 1179.49770000 1483
-0.05550000 -0.21650000 1179.49890000 1482
-0.05560000 -0.21660000 1179.50370000 1487
-0.05570000 -0.21670000 1179.49770000 1485
-0.05570000 -0.21680000 1179.50070000 1486
-0.05580000 -0.21690000 1179.50160000 1480
-0.05580000 -0.21690000 1179.49970000 1485
-0.05590000 -0.21710000 1179.50090000 1489
-0.05690000 -0.21860000 1179.49690000 1504
-0.05690000 -0.21870000 1179.49640000 1509
-0.05720000 -0.21910000 1179.49660000 1503
-0.05730000 -0.21910000 1179.49520000 1508
-0.05790000 -0.22000000 1179.49530000 1503
-0.05790000 -0.22010000 1179.50130000 1491
-0.05800000 -0.22020000 1179.50100000 1498
-0.05800000 -0.22030000 1179.49940000 1499
-0.05810000 -0.22030000 1179.50080000 1503
-0.05820000 -0.22040000 1179.49850000 1500
-0.05820000 -0.22050000 1179.50130000 1506
-0.05850000 -0.22090000 1179.50320000 1502
-0.05850000 -0.22090000 1179.50120000 1494
-0.05860000 -0.22110000 1179.49880000 1500
-0.05870000 -0.22120000 1179.50420000 1494
-0.05870000 -0.22120000 1179.49670000 1494
-0.05880000 -0.22140000 1179.49940000 1496
-0.05890000 -0.22140000 1179.49930000 1488
-0.05900000 -0.22160000 1179.49930000 1493
-0.05900000 -0.22170000 1179.50230000 1496
-0.05920000 -0.22190000 1179.50180000 1497
-0.05920000 -0.22190000 1179.49870000 1493
-0.05930000 -0.22200000 1179.50090000 1490
-0.05930000 -0.22210000 1179.50300000 1484
-0.05940000 -0.22220000 1179.50460000 1493
-0.05960000 -0.22240000 1179.50340000 1494
-0.05960000 -0.22250000 1179.50460000 1494
-0.05970000 -0.22260000 1179.50290000 1488
-0.05980000 -0.22270000 1179.50660000 1481
-0.06000000 -0.22290000 1179.50420000 1490
-0.06010000 -0.22300000 1179.50470000 1491
-0.06010000 -0.22310000 1179.50220000 1482
-0.06020000 -0.22320000 1179.50410000 1478
-0.06030000 -0.22330000 1179.50460000 1481
-0.06040000 -0.22350000 1179.50630000 1485
-0.06050000 -0.22360000 1179.50680000 1480
-0.06050000 -0.22360000 1179.50610000 1476
-0.06060000 -0.22380000 1179.50720000 1463
-0.06070000 -0.22380000 1179.50620000 1469
-0.06070000 -0.22380000 1179.50420000 1475
-0.06080000 -0.22390000 1179.50450000 1467
-0.06090000 -0.22400000 1179.50210000 1470
-0.06090000 -0.22410000 1179.50380000 1472
-0.06100000 -0.22420000 1179.50600000 1457
-0.06110000 -0.22430000 1179.50720000 1456
-0.06110000 -0.22430000 1179.50000000 1454
-0.06120000 -0.22440000 1179.50330000 1456
-0.06120000 -0.22450000 1179.50350000 1459
-0.06130000 -0.22460000 1179.50650000 1459
-0.06130000 -0.22460000 1179.50190000 1462
-0.06140000 -0.22460000 1179.49990000 1457
-0.06140000 -0.22470000 1179.50050000 1457
-0.06150000 -0.22480000 1179.50380000 1447
-0.06160000 -0.22490000 1179.51030000 1439
-0.06160000 -0.22490000 1179.50640000 1450
-0.06170000 -0.22500000 1179.50700000 1446
-0.06170000 -0.22510000 1179.50740000 1440
-0.06180000 -0.22510000 1179.50450000 1445
-0.06180000 -0.22520000 1179.50870000 1439
-0.06190000 -0.22520000 1179.50760000 1447
-0.06190000 -0.22530000 1179.50620000 1440
-0.06200000 -0.22540000 1179.51150000 1434
-0.06200000 -0.22550000 1179.51120000 1433
-0.06210000 -0.22560000 1179.51750000 1437
-0.06220000 -0.22560000 1179.51390000 1423
-0.06220000 -0.22570000 1179.51810000 1435
-0.06220000 -0.22570000 1179.50920000 1432
-0.06230000 -0.22570000 1179.50870000 1429
-0.06240000 -0.22580000 1179.51380000 1426
-0.06240000 -0.22590000 1179.51310000 1432
-0.06250000 -0.22600000 1179.51730000 1426
-0.06250000 -0.22610000 1179.51870000 1431
-0.06260000 -0.22610000 1179.51810000 1430
-0.06270000 -0.22620000 1179.52230000 1427
-0.06270000 -0.22630000 1179.52210000 1429
-0.06280000 -0.22630000 1179.51750000 1415
-0.06280000 -0.22630000 1179.51550000 1414
-0.06290000 -0.22640000 1179.51460000 1433
-0.06290000 -0.22650000 1179.51920000 1437
-0.06300000 -0.22660000 1179.52050000 1428
-0.06300000 -0.22660000 1179.52060000 1436
-0.06310000 -0.22670000 1179.52110000 1438
-0.06310000 -0.22680000 1179.52380000 1430
-0.06320000 -0.22690000 1179.52540000 1438
-0.06320000 -0.22690000 1179.51980000 1431
-0.06330000 -0.22690000 1179.51470000 1440
-0.06330000 -0.22700000 1179.51850000 1439
-0.06340000 -0.22710000 1179.52410000 1432
-0.06350000 -0.22720000 1179.52600000 1443
-0.06350000 -0.22730000 1179.52980000 1447
-0.06360000 -0.22720000 1179.52020000 1442
-0.06360000 -0.22740000 1179.52820000 1438
-0.06370000 -0.22730000 1179.52000000 1440
-0.06370000 -0.22740000 1179.52180000 1439
-0.06380000 -0.22750000 1179.51980000 1437
-0.06380000 -0.22750000 1179.52060000 1432
-0.06390000 -0.22760000 1179.52580000 1447
-0.06400000 -0.22770000 1179.52340000 1451
-0.06400000 -0.22770000 1179.52560000 1452
-0.06410000 -0.22780000 1179.52610000 1451
-0.06410000 -0.22790000 1179.52630000 1448
-0.06420000 -0.22800000 1179.53120000 1455
-0.06420000 -0.22790000 1179.52180000 1440
-0.06430000 -0.22800000 1179.52470000 1451
-0.06440000 -0.22810000 1179.52460000 1439
-0.06440000 -0.22810000 1179.52410000 1447
-0.06450000 -0.22830000 1179.53160000 1453
-0.06450000 -0.22830000 1179.52640000 1455
-0.06460000 -0.22830000 1179.52650000 1462
-0.06460000 -0.22840000 1179.52760000 1460
-0.06470000 -0.22840000 1179.52590000 1447
-0.01380000 -0.23510000 1179.55910000 1507
-0.01380000 -0.23520000 1179.56230000 1507
-0.01390000 -0.23530000 1179.55990000 1501
-0.01390000 -0.23540000 1179.56150000 1505
-0.01400000 -0.23550000 1179.55990000 1500
-0.01410000 -0.23570000 1179.56160000 1507
-0.01410000 -0.23580000 1179.56150000 1506
-0.01420000 -0.23590000 1179.56170000 1500
-0.01430000 -0.23610000 1179.56340000 1501
-0.01430000 -0.23620000 1179.56180000 1505
-0.01440000 -0.23630000 1179.56080000 1503
-0.01450000 -0.23640000 1179.56410000 1505
-0.01450000 -0.23660000 1179.56520000 1503
-0.01460000 -0.23670000 1179.56470000 1510
-0.01470000 -0.23680000 1179.56290000 1502
-0.01470000 -0.23690000 1179.56210000 1500
-0.01480000 -0.23700000 1179.56580000 1504
-0.01490000 -0.23720000 1179.56570000 1502
-0.01490000 -0.23730000 1179.56390000 1501
-0.01500000 -0.23740000 1179.56640000 1498
-0.01510000 -0.23760000 1179.56460000 1499
-0.01520000 -0.23780000 1179.56530000 1504
-0.01530000 -0.23790000 1179.56450000 1495
-0.01530000 -0.23800000 1179.56570000 1498
-0.01540000 -0.23810000 1179.56610000 1498
-0.01550000 -0.23820000 1179.56420000 1493
-0.01560000 -0.23840000 1179.56630000 1500
-0.01560000 -0.23850000 1179.56620000 1497
-0.01570000 -0.23860000 1179.56370000 1486
-0.01580000 -0.23870000 1179.56520000 1497
-0.01580000 -0.23880000 1179.56410000 1490
-0.01590000 -0.23890000 1179.56380000 1487
-0.01600000 -0.23900000 1179.56130000 1486
-0.01600000 -0.23910000 1179.56030000 1491
-0.01610000 -0.23930000 1179.56550000 1492
-0.01620000 -0.23940000 1179.56150000 1485
-0.01620000 -0.23950000 1179.56230000 1489
-0.01630000 -0.23960000 1179.56090000 1482
-0.01640000 -0.23970000 1179.56060000 1477
-0.01640000 -0.23980000 1179.55970000 1479
-0.01650000 -0.24000000 1179.55950000 1469
-0.01660000 -0.24010000 1179.56190000 1478
-0.01670000 -0.24020000 1179.55830000 1475
-0.01670000 -0.24030000 1179.55900000 1476
-0.01680000 -0.24040000 1179.56160000 1479
-0.01690000 -0.24050000 1179.55670000 1461
-0.01700000 -0.24060000 1179.55770000 1466
-0.01700000 -0.24070000 1179.55470000 1459
-0.01710000 -0.24080000 1179.55060000 1458
-0.01720000 -0.24100000 1179.55460000 1461
-0.01720000 -0.24110000 1179.55200000 1449
-0.01730000 -0.24120000 1179.55440000 1456
-0.01740000 -0.24130000 1179.55720000 1460
-0.01750000 -0.24140000 1179.55200000 1442
-0.01750000 -0.24150000 1179.55230000 1453
-0.01760000 -0.24160000 1179.54450000 1441
-0.01770000 -0.24170000 1179.54870000 1444
-0.01770000 -0.24180000 1179.54870000 1439
-0.01780000 -0.24190000 1179.54590000 1438
-0.01790000 -0.24210000 1179.54870000 1447
-0.01800000 -0.24220000 1179.54810000 1444
-0.01800000 -0.24230000 1179.54700000 1437
-0.01810000 -0.24240000 1179.54580000 1441
-0.01820000 -0.24250000 1179.53980000 1437
-0.01830000 -0.24260000 1179.54370000 1434
-0.01830000 -0.24270000 1179.53940000 1433
-0.01840000 -0.24280000 1179.54180000 1438
-0.01850000 -0.24300000 1179.54420000 1433
-0.01860000 -0.24300000 1179.54000000 1430
-0.01860000 -0.24320000 1179.54540000 1439
-0.01870000 -0.24330000 1179.54310000 1431
-0.01880000 -0.24340000 1179.53760000 1428
-0.01880000 -0.24350000 1179.53620000 1427
-0.01890000 -0.24350000 1179.53360000 1429
-0.01900000 -0.24370000 1179.53410000 1438
-0.01910000 -0.24380000 1179.53440000 1432
-0.01910000 -0.24390000 1179.53420000 1435
-0.01920000 -0.24400000 1179.53700000 1432
-0.01930000 -0.24410000 1179.53060000 1436
-0.01940000 -0.24420000 1179.53550000 1434
-0.01950000 -0.24430000 1179.53100000 1435
-0.01950000 -0.24440000 1179.53120000 1438
-0.01960000 -0.24450000 1179.52990000 1450
-0.01970000 -0.24460000 1179.52890000 1451
-0.01980000 -0.24480000 1179.53000000 1444
-0.01980000 -0.24480000 1179.52570000 1448
-0.01990000 -0.24500000 1179.52860000 1445
-0.02000000 -0.24510000 1179.53000000 1446
-0.02010000 -0.24520000 1179.52860000 1445
-0.02010000 -0.24530000 1179.52640000 1452
-0.02020000 -0.24540000 1179.52810000 1457
-0.02030000 -0.24550000 1179.52590000 1459
-0.02040000 -0.24560000 1179.52600000 1454
-0.02040000 -0.24570000 1179.52530000 1453
-0.02050000 -0.24590000 1179.52680000 1454
-0.02060000 -0.24600000 1179.52720000 1458
-0.02070000 -0.24610000 1179.52600000 1447
-0.02080000 -0.24620000 1179.52680000 1456
-0.02080000 -0.24630000 1179.52310000 1459
-0.02090000 -0.24640000 1179.52500000 1458
-0.02100000 -0.24650000 1179.52700000 1457
-0.02110000 -0.24660000 1179.52330000 1461
-0.02120000 -0.24670000 1179.52530000 1457
-0.02120000 -0.24680000 1179.52520000 1464
-0.02130000 -0.24700000 1179.52570000 1465
-0.02140000 -0.24710000 1179.52750000 1465
-0.02150000 -0.24720000 1179.52310000 1464
-0.02160000 -0.24730000 1179.52430000 1462
-0.02160000 -0.24740000 1179.52320000 1467
-0.02170000 -0.24750000 1179.52630000 1460
-0.02180000 -0.24760000 1179.52560000 1458
-0.02190000 -0.24780000 1179.52520000 1461
-0.02200000 -0.24790000 1179.52480000 1468
-0.02200000 -0.24800000 1179.52550000 1465
-0.02210000 -0.24810000 1179.52360000 1459
-0.02220000 -0.24820000 1179.52400000 1461
-0.02230000 -0.24830000 1179.52450000 1460
-0.02240000 -0.24840000 1179.52470000 1457
-0.02240000 -0.24850000 1179.52290000 1461
-0.02250000 -0.24860000 1179.52470000 1452
-0.02260000 -0.24870000 1179.52390000 1459
-0.02270000 -0.24880000 1179.52440000 1455
-0.02280000 -0.24900000 1179.52510000 1456
-0.02280000 -0.24900000 1179.52330000 1460
-0.02290000 -0.24910000 1179.52150000 1452
-0.02300000 -0.24930000 1179.52630000 1461
-0.02310000 -0.24930000 1179.51980000 1455
-0.02320000 -0.24950000 1179.52340000 1448
-0.02330000 -0.24960000 1179.52430000 1451
-0.02330000 -0.24970000 1179.52200000 1451
-0.02340000 -0.24980000 1179.52360000 1454
-0.02350000 -0.24990000 1179.52260000 1454
-0.02360000 -0.25000000 1179.52460000 1445
-0.02370000 -0.25010000 1179.52380000 1445
-0.02380000 -0.25030000 1179.52460000 1457
-0.02380000 -0.25030000 1179.52160000 1450
-0.02390000 -0.25050000 1179.52300000 1444
-0.02400000 -0.25060000 1179.52330000 1446
-0.02410000 -0.25070000 1179.52350000 1446
-0.02420000 -0.25080000 1179.52400000 1446
-0.02430000 -0.25090000 1179.52170000 1446
-0.02430000 -0.25100000 1179.52240000 1446
-0.02440000 -0.25110000 1179.52130000 1447
-0.02450000 -0.25120000 1179.52070000 1447
-0.02460000 -0.25130000 1179.52510000 1439
-0.02470000 -0.25140000 1179.52380000 1446
-0.02480000 -0.25160000 1179.52620000 1445
-0.02480000 -0.25170000 1179.52660000 1448
-0.02490000 -0.25170000 1179.52400000 1441
-0.02500000 -0.25180000 1179.52300000 1447
-0.02510000 -0.25200000 1179.52580000 1443
-0.02520000 -0.25210000 1179.52430000 1444
-0.02530000 -0.25220000 1179.52620000 1445
-0.02540000 -0.25230000 1179.52400000 1446
-0.02540000 -0.25240000 1179.52500000 1444
-0.02550000 -0.25250000 1179.52530000 1445
-0.02560000 -0.25260000 1179.52640000 1449
-0.02570000 -0.25270000 1179.52550000 1451
-0.02580000 -0.25280000 1179.52530000 1442
-0.02590000 -0.25290000 1179.52680000 1449
-0.02600000 -0.25300000 1179.52600000 1448
-0.02600000 -0.25320000 1179.52650000 1455
-0.02610000 -0.25330000 1179.52890000 1449
-0.02620000 -0.25330000 1179.52610000 1448
-0.02630000 -0.25350000 1179.53240000 1459
-0.02640000 -0.25360000 1179.52770000 1456
-0.02650000 -0.25370000 1179.52840000 1457
-0.02660000 -0.25380000 1179.52970000 1450
-0.02670000 -0.25390000 1179.52990000 1448
-0.02670000 -0.25400000 1179.52850000 1456
-0.02680000 -0.25410000 1179.52900000 1458
-0.02690000 -0.25420000 1179.52890000 1457
-0.02700000 -0.25430000 1179.53210000 1463
-0.02710000 -0.25450000 1179.53210000 1461
-0.02720000 -0.25460000 1179.53450000 1464
-0.02730000 -0.25470000 1179.53290000 1454
-0.02740000 -0.25480000 1179.53290000 1458
-0.02740000 -0.25490000 1179.53310000 1465
-0.02750000 -0.25500000 1179.53230000 1465
-0.02760000 -0.25510000 1179.53670000 1464
-0.02770000 -0.25520000 1179.53690000 1464
-0.02780000 -0.25540000 1179.53830000 1475
-0.02790000 -0.25550000 1179.54180000 1479
-0.02800000 -0.25560000 1179.53970000 1468
-0.02810000 -0.25570000 1179.54360000 1471
-0.02820000 -0.25570000 1179.53690000 1465
-0.02830000 -0.25590000 1179.54250000 1473
-0.02840000 -0.25600000 1179.54040000 1472
-0.02850000 -0.25610000 1179.53950000 1463
-0.02850000 -0.25620000 1179.54130000 1473
-0.02860000 -0.25640000 1179.54560000 1477
-0.02870000 -0.25650000 1179.54570000 1477
-0.02880000 -0.25650000 1179.54160000 1473
-0.02890000 -0.25660000 1179.54310000 1469
-0.02900000 -0.25680000 1179.54600000 1475
-0.02910000 -0.25680000 1179.54290000 1475
-0.02920000 -0.25700000 1179.54300000 1474
-0.02930000 -0.25710000 1179.54500000 1475
-0.02940000 -0.25720000 1179.54410000 1474
-0.02950000 -0.25730000 1179.54830000 1470
-0.02960000 -0.25740000 1179.54810000 1479
-0.02970000 -0.25750000 1179.54970000 1477
-0.02970000 -0.25760000 1179.54720000 1479
-0.02980000 -0.25770000 1179.54710000 1478
-0.02990000 -0.25780000 1179.54660000 1480
-0.03000000 -0.25790000 1179.54610000 1480
-0.03010000 -0.25800000 1179.54600000 1474
-0.03020000 -0.25810000 1179.54650000 1479
-0.03030000 -0.25820000 1179.54710000 1473
-0.03040000 -0.25830000 1179.54910000 1476
-0.03050000 -0.25850000 1179.55020000 1482
-0.03060000 -0.25850000 1179.54780000 1472
-0.03070000 -0.25870000 1179.55040000 1482
-0.03080000 -0.25880000 1179.54990000 1479
-0.03090000 -0.25880000 1179.54800000 1479
-0.03100000 -0.25900000 1179.55120000 1476
-0.03110000 -0.25900000 1179.54890000 1473
-0.03120000 -0.25920000 1179.54720000 1480
-0.03130000 -0.25930000 1179.54940000 1480
-0.03140000 -0.25940000 1179.54870000 1475
-0.03150000 -0.25950000 1179.54740000 1480
-0.03160000 -0.25960000 1179.54750000 1478
-0.03170000 -0.25970000 1179.54630000 1474
-0.03180000 -0.25980000 1179.54560000 1475
-0.03190000 -0.25990000 1179.54620000 1480
-0.03200000 -0.26000000 1179.54680000 1482
-0.03210000 -0.26010000 1179.54580000 1480
-0.03220000 -0.26020000 1179.54520000 1479
-0.03230000 -0.26030000 1179.54600000 1475
-0.03240000 -0.26040000 1179.54410000 1480
-0.03250000 -0.26050000 1179.54590000 1473
-0.03260000 -0.26050000 1179.54280000 1476
-0.03270000 -0.26070000 1179.54570000 1478
-0.03270000 -0.26070000 1179.54240000 1482
-0.03280000 -0.26080000 1179.54130000 1481
-0.03290000 -0.26090000 1179.54050000 1484
-0.03300000 -0.26100000 1179.54240000 1482
-0.03310000 -0.26110000 1179.53980000 1478
-0.03320000 -0.26120000 1179.54200000 1484
-0.03330000 -0.26130000 1179.54240000 1479
-0.03340000 -0.26140000 1179.54130000 1475
-0.03350000 -0.26150000 1179.54090000 1476
-0.03360000 -0.26160000 1179.53950000 1487
-0.03370000 -0.26170000 1179.53880000 1487
-0.03380000 -0.26180000 1179.53910000 1482
-0.03390000 -0.26190000 1179.53910000 1486
-0.03400000 -0.26200000 1179.53980000 1485
-0.03410000 -0.26210000 1179.54140000 1485
-0.03420000 -0.26210000 1179.53720000 1480
-0.03430000 -0.26220000 1179.53440000 1483
-0.03440000 -0.26230000 1179.53740000 1491
-0.03450000 -0.26240000 1179.53420000 1490
-0.03460000 -0.26250000 1179.53710000 1488
-0.03470000 -0.26260000 1179.53380000 1488
-0.03480000 -0.26270000 1179.53410000 1490
-0.03490000 -0.26270000 1179.53200000 1490
-0.03500000 -0.26280000 1179.53220000 1489
